ply
format ascii 1.0
element vertex 871
property double x
property double y
property double z
end_header
0.093737553524785 0.447584211239431 1.012716006678254
0.115889770852319 0.435384104489954 0.948308426208261
0.100229019689140 0.443030677784067 0.988676702885953
0.091056423980127 0.382988038362394 0.884000003337860
0.082461257127435 0.384208894590007 0.884000003337860
0.115650987719753 0.386141241901462 0.884000003337860
0.074886010707540 0.379503670515606 0.884000003337860
0.098447922655678 0.419186997260007 0.884000003337860
0.124295953574963 0.393279131491130 0.884000003337860
0.137147182481457 0.387749618779927 0.884000003337860
0.032001193612814 0.398871798629498 0.916309059073308
0.032001193612814 0.389943043709285 0.963379237817284
0.032001193612814 0.404797000552182 0.930081014795327
0.032001193612814 0.413469010229251 0.886601195663589
0.032001193612814 0.435265737847079 0.958702163598861
0.032001193612814 0.420990328062949 0.964984029205190
0.032001193612814 0.418048146032772 0.954835149909623
0.032001193612814 0.387410643751186 1.021683690119118
0.032001193612814 0.423119286262384 0.953070690056750
0.032001193612814 0.422219000434583 0.911125135279629
0.032001193612814 0.428882243679242 1.002579345299012
-0.378287672757662 0.368641479278056 0.804004728794098
-0.378492589185825 0.334307774776266 0.804004728794098
-0.381039014916045 0.348079852229270 0.783222258090973
-0.380984511465493 0.202201618494340 0.783222258090973
-0.338101769347262 0.382025419882390 0.804004728794098
0.226667576709622 0.378328839473422 0.804004728794098
-0.024001243312404 0.379148669044715 0.804004728794098
-0.275315351162447 0.382870359473778 0.804004728794098
-0.308910076612753 0.385120438891329 0.804004728794098
0.271725075693348 0.379391611568241 0.804004728794098
0.213603916407871 0.385071660862269 0.804004728794098
0.095898628780432 0.383389099339688 0.804004728794098
-0.352478015744453 0.380589727266972 0.783222258090973
0.274655459995279 0.377754157420853 0.783222258090973
-0.095261864624289 0.377802987694266 0.783222258090973
-0.119412052189547 0.378101413303570 0.783222258090973
-0.122709920514360 0.385292141650842 0.783222258090973
0.100966708192898 0.380217586403602 0.783222258090973
-0.020585436793171 0.385089565430943 0.783222258090973
0.058224002614649 0.381243567724567 0.783222258090973
0.148886464564464 -0.362722983177469 0.804004728794098
-0.018401851572072 -0.362146812008172 0.804004728794098
0.180413706263423 -0.362085288097366 0.804004728794098
0.243554905272411 -0.362502021911788 0.804004728794098
-0.057061943732552 -0.364951612566485 0.783222258090973
-0.063907334103086 -0.360522452116749 0.783222258090973
0.093175079900696 -0.359570437311963 0.783222258090973
-0.005351495065607 -0.358387294127093 0.783222258090973
-0.380322111811200 0.037649646758232 0.872000038623810
-0.381790875435193 -0.011066810663767 0.872000038623810
-0.384837164831072 -0.302183001573885 0.872000038623810
-0.378196105987424 0.069540392952293 0.872000038623810
-0.378711710423504 -0.116056570616690 0.872000038623810
-0.382284931456942 -0.283818048952706 0.872000038623810
-0.324383210307300 -0.361393081441663 0.872000038623810
-0.146764567761474 -0.363324738474475 0.872000038623810
-0.098751641721419 -0.362968165692906 0.784021615982056
-0.104595650607910 -0.360973803271556 0.784021615982056
-0.318748272180183 -0.362051804957276 0.784021615982056
-0.380015453456359 -0.251099549198653 0.784021615982056
-0.381264833775403 -0.297473378352845 0.784021615982056
-0.378913990875863 -0.055349129865863 0.784021615982056
-0.380345760926928 0.040557146025830 0.784021615982056
-0.382357993045160 -0.073864846797421 0.784021615982056
-0.380355118149076 0.033154716861090 0.784021615982056
0.511467815183158 0.284883896783248 0.441436439752579
0.505364485007665 0.277777941736418 0.441436439752579
0.533910642665689 0.274035365328384 0.441436439752579
0.496581053566206 0.267168107600741 0.441436439752579
0.506088184270127 0.261367675748788 0.441436439752579
0.522310279127604 0.254487937710841 0.441436439752579
0.437879545360793 0.284109963139500 0.441436439752579
0.430005994691690 0.273285443312505 0.441436439752579
0.453863811352238 0.273892704423501 0.441436439752579
0.441141945754110 0.267548941191930 0.441436439752579
0.457762514151088 0.261530442276770 0.441436439752579
0.413790584585241 0.256163184129110 0.441436439752579
-0.593356907367706 0.358147737963279 -0.555220968079172
-0.593356907367706 0.306396352440744 -0.517126131028608
-0.593356907367706 0.356974755558148 -0.462359163323887
-0.593356907367706 0.344596026351068 -0.558795777302130
-0.593356907367706 0.302946131845593 -0.505984736239271
-0.593356907367706 0.348776745893868 -0.480087427270021
-0.593356907367706 0.366076759367860 -0.517182697138335
-0.593356907367706 0.354080042315463 -0.485312415270852
-0.593356907367706 0.343704961016154 -0.548825277116762
-0.593356907367706 0.367861898647280 -0.431525996037447
-0.593356907367706 0.373997209350708 -0.504835533767537
-0.593356907367706 0.329795764410910 -0.494399679323780
-0.593356907367706 0.331383695249886 -0.438092548087361
-0.593356907367706 0.280366857029477 -0.481920225154571
-0.593356907367706 0.272624378341137 -0.491203322662830
-0.593356907367706 0.327209686220318 -0.458681903489883
-0.593356907367706 0.321065988984163 -0.458752801892583
-0.600689403349030 0.377980858087540 -0.535362731751776
-0.594278802176669 0.377980858087540 -0.452934392621438
-0.598857383044150 0.373276629641514 -0.403904083320342
-0.593942398078033 0.306248979724926 -0.454718486426333
-0.598141284177857 0.328274268803875 -0.558819770812988
-0.596721819551825 0.308317341439347 -0.558819770812988
-0.601501166820526 0.270482657399970 -0.548306221656553
-0.601501166820526 0.313171341842452 -0.542180873249333
-0.601501166820526 0.308763408555219 -0.497521898184515
-0.601501166820526 0.330807769307634 -0.474300162408505
-0.601501166820526 0.343193639346335 -0.550728496002524
-0.601501166820526 0.373868452560602 -0.451311235886651
-0.601501166820526 0.319450053905639 -0.524493113507596
-0.601501166820526 0.290377526899241 -0.527008007815769
-0.601501166820526 0.341476696419361 -0.519071134794982
-0.601501166820526 0.315351697775936 -0.497885333855105
-0.601501166820526 0.317299071617053 -0.516251359237908
-0.601501166820526 0.321942355101583 -0.542137136934960
-0.601501166820526 0.335841841276737 -0.450103901267527
-0.601501166820526 0.369690092734224 -0.410121119186549
-0.601501166820526 0.264769487493568 -0.487441359313290
-0.601501166820526 0.305396293349618 -0.495328730898990
-0.601501166820526 0.263008939176980 -0.496290175855734
-0.593356907367706 -0.312673722060120 -0.522623925331789
-0.593356907367706 -0.245878013369931 -0.531622681746530
-0.593356907367706 -0.295142005833799 -0.521750670688912
-0.593356907367706 -0.299515397244364 -0.515689860543548
-0.593356907367706 -0.236680680187855 -0.539005740912451
-0.593356907367706 -0.242365876397413 -0.553687511952691
-0.593356907367706 -0.316331303361590 -0.452290860307770
-0.593356907367706 -0.282376105137812 -0.539461758799292
-0.593356907367706 -0.322326999874458 -0.556166194054554
-0.593356907367706 -0.260336781333171 -0.520622888202866
-0.593356907367706 -0.282418130049007 -0.549442084629535
-0.593356907367706 -0.303214457949383 -0.531618446566636
-0.593356907367706 -0.221436007148580 -0.506775498185656
-0.593356907367706 -0.279161177574324 -0.472740533708712
-0.593356907367706 -0.228985921208685 -0.505852931662195
-0.593356907367706 -0.266770580618255 -0.489787475366899
-0.593356907367706 -0.241032548807305 -0.512675143403760
-0.596061902805924 -0.337307035923004 -0.556358155744633
-0.595556533503866 -0.337307035923004 -0.438819507076818
-0.599880731724115 -0.310342978998290 -0.420779472006584
-0.595404624485598 -0.240956014292319 -0.473382411291148
-0.599024756752365 -0.255485762380104 -0.558819770812988
-0.598387687255985 -0.241215854596827 -0.558819770812988
-0.601501166820526 -0.232124923035464 -0.558771865490434
-0.601501166820526 -0.305470284218996 -0.464767252974840
-0.601501166820526 -0.314167792034596 -0.440530710464473
-0.601501166820526 -0.276230404834361 -0.556830532840864
-0.601501166820526 -0.326799383712969 -0.424971341035741
-0.601501166820526 -0.291293525245100 -0.550598360564152
-0.601501166820526 -0.300092873361549 -0.543858876336930
-0.601501166820526 -0.314036589329559 -0.468204455372684
-0.601501166820526 -0.334917343108719 -0.417327441715483
-0.601501166820526 -0.279250787006847 -0.488361644826325
-0.601501166820526 -0.307789018242717 -0.523541161272027
-0.601501166820526 -0.317759667455259 -0.495204646086671
-0.601501166820526 -0.249979459284543 -0.469647961642353
-0.601501166820526 -0.268353852220832 -0.479707956133925
-0.601501166820526 -0.251876859457077 -0.497041930960073
-0.601501166820526 -0.249367643212599 -0.514351173986262
-0.601501166820526 -0.222262197084352 -0.490115751111595
0.441294072225530 -0.184808626770973 -0.137089855085855
0.460862950089893 -0.184808626770973 -0.129883959547827
0.447029218352674 -0.184808626770973 -0.100578434208609
0.453660428891648 -0.184808626770973 -0.154598759791639
0.492496365256132 -0.184808626770973 -0.089631889730462
0.469587129925020 -0.184808626770973 -0.136801518232188
0.459980489278234 -0.184808626770973 -0.131590310750645
0.486738926086825 -0.184808626770973 -0.129703901319737
0.500098095139584 -0.184808626770973 -0.099082211402023
0.484766996218205 -0.184808626770973 -0.078834323542275
0.506657157272882 -0.184808626770973 -0.086981112098419
0.471574857311908 -0.184808626770973 -0.087818155807354
0.477683918605519 -0.184808626770973 -0.079422651065144
0.500463143993716 -0.184808626770973 -0.078638561838013
0.509591142859259 -0.188797757029533 -0.130182624793392
0.463844633263961 -0.188797757029533 -0.093285183995348
0.432706687505390 -0.188797757029533 -0.137988137609028
0.539251092589874 -0.188797757029533 -0.148543298948209
0.533066954494544 -0.188797757029533 -0.148282648517950
0.449088543582180 -0.188797757029533 -0.126545916640667
0.467346117640263 -0.188797757029533 -0.089075870063614
0.551745895828454 -0.188797757029533 -0.160925832594287
0.523939538125628 -0.188797757029533 -0.142180946398189
0.460163586422303 -0.188797757029533 -0.157923384266423
0.486270495513449 -0.188797757029533 -0.122584799882761
0.450715165560645 -0.188797757029533 -0.107092941303128
0.473918613273876 -0.188797757029533 -0.131741571221971
0.455182920597582 -0.188797757029533 -0.128083365102542
0.512853586069733 -0.184808626770973 0.120588189872138
0.476077093129974 -0.184808626770973 0.128086419686638
0.436315881758198 -0.184808626770973 0.108639285326985
0.481046674705077 -0.184808626770973 0.102507266935174
0.494593819670667 -0.184808626770973 0.167019573780849
0.483906228289446 -0.184808626770973 0.163270582935940
0.520821955470623 -0.184808626770973 0.083725950301593
0.463761227340993 -0.184808626770973 0.110202135004489
0.444592182794152 -0.184808626770973 0.132182229334886
0.489984693154886 -0.184808626770973 0.153400154458787
0.453170077730935 -0.184808626770973 0.134891424976464
0.484234129983504 -0.184808626770973 0.098734456170640
0.488166464886065 -0.184808626770973 0.135179525932806
0.438188229000504 -0.184808626770973 0.118523788427110
0.516872656919589 -0.188797757029533 0.125618381900362
0.473397055715204 -0.188797757029533 0.129232413604012
0.470797408648866 -0.188797757029533 0.109156033759644
0.501338603388756 -0.188797757029533 0.144794677339973
0.479703880005883 -0.188797757029533 0.172581560140045
0.495676124044433 -0.188797757029533 0.166971848206347
0.414406753753767 -0.188797757029533 0.079735114406050
0.498932894934093 -0.188797757029533 0.160062839685950
0.531212256021663 -0.188797757029533 0.110492836060600
0.460971281347720 -0.188797757029533 0.164465232431258
0.502974706458695 -0.188797757029533 0.102026561085041
0.503258339365207 -0.188797757029533 0.122037327973500
0.506921914699842 -0.188797757029533 0.142015854797042
0.511673363233909 -0.188797757029533 0.081609781748500
0.408043885929074 0.226062092715610 -0.525713160366449
0.517940158578893 0.337797436091172 -0.530191225838870
0.430122577315177 0.248510262283383 -0.462055567763527
0.431505951153046 0.249916786336146 -0.457740866251266
0.484139394644435 0.303431029719889 -0.546503009428799
0.482101761142112 0.301359297225548 -0.538211505165958
0.530126367705135 0.350187576614917 -0.540775958498141
0.502195844353793 0.321789646984803 -0.542121189453855
0.504743836958229 0.324380279239295 -0.528797767987855
0.414251738340195 0.232373831085406 -0.398006213752761
0.468071908696349 0.287094660739368 -0.449715806064892
0.428628649904460 0.246991334587386 -0.463624789365354
0.500408875580536 0.319972773994784 -0.526073396124568
0.438913252320617 0.257448045763679 -0.460126345210109
0.423956633663613 0.242241133999685 -0.386264598168060
0.426236252858146 0.244558901721238 -0.531312912171730
0.407739555257833 0.225752669190763 -0.543774125667528
0.432427883193974 0.250854146545717 -0.435960724882016
0.518811200824045 0.338683054884329 -0.538337389293138
0.499615926859634 0.319166555590166 -0.539288335580563
0.434055631171417 0.252509134242779 -0.411072968609588
0.418486018447411 0.236678970198137 -0.376455418842070
0.497803159408687 0.317323452191773 -0.500504473210474
0.402889075089584 0.220821018152310 -0.540417871843785
0.443599059798957 0.262212268379787 -0.424811312776124
0.467139721280834 0.286146873535567 -0.529691009151570
0.424208441436024 0.242497155675731 -0.517756199653499
0.410848964180818 0.228914112844197 -0.514246636090726
0.533855731079821 0.353979349412985 -0.415898819929699
0.488638086705072 0.308005005615667 -0.463478095690903
0.433642953672118 0.252089550748492 -0.387639682156394
0.459666659728553 0.278548753249253 -0.380237919725015
0.525225628393081 0.345204825365733 -0.388100078049448
0.529742364928160 0.349797147703108 -0.372449961169221
0.519419625216508 0.339301661018738 -0.361144687232463
0.494107229610338 0.313565672467737 -0.410649853863303
0.527986433714011 0.348011831673491 -0.466455214080024
0.476622782954340 0.295788630501403 -0.447583686651414
0.501214857475016 0.320792243677993 -0.402889955019327
0.433113810083573 0.251551552150947 -0.374722145333593
0.538601679939151 0.358804719852344 -0.403440864084422
0.518105166584858 0.337965205440956 -0.506363023244818
0.510716118536031 0.330452504590901 -0.423065923938376
0.490736399874049 0.310138433226922 -0.403051048820526
0.470065116851194 0.289121224445584 -0.423402015126465
0.497538667453485 0.317054534068145 -0.374191645614288
0.523983182493819 0.343941587624978 -0.370808656759342
0.484273977406548 0.303567864671380 -0.376333000137675
0.527154471116775 0.347165946510725 -0.439005982876312
0.545872292760628 0.366197003508289 -0.357320696979275
0.464933303742592 0.283903532471116 -0.380364680515865
0.420086206870698 0.238305937142788 -0.345764607771212
0.439387513628647 0.257930243647419 -0.384725721921555
0.511819643445294 0.331574496553748 -0.437749884097964
0.512783032747472 0.332554007795465 -0.416970540556283
0.539852261419890 0.360076229320320 -0.397619543733465
0.367169639808832 0.219997584819794 -0.464634265790246
0.375190693056543 0.219997584819794 -0.546215253240069
0.363765949569836 0.219997584819794 -0.433450536836416
0.378147257829229 0.219997584819794 -0.500851505608950
0.357540298484240 0.219997584819794 -0.494527914016600
0.350839455084932 0.219997584819794 -0.525143938950063
0.354166801775654 0.219997584819794 -0.449775943036706
0.367965592589654 0.219997584819794 -0.465137949792301
0.360154808045351 0.219997584819794 -0.433928691859327
0.345778280704369 0.219997584819794 -0.353952273434669
0.368977190619595 0.219997584819794 -0.355841168703892
0.401843469411002 0.219997584819794 -0.352517587793649
0.383789677055392 0.219997584819794 -0.409646155821704
0.376627172840881 0.219997584819794 -0.364031293999391
0.401214721768968 0.219997584819794 -0.455173720120177
0.396999980635547 0.219997584819794 -0.426090722472713
0.398640231930750 0.219997584819794 -0.403300715850131
0.390662014879043 0.219997584819794 -0.385568662446077
0.363437168872690 0.268837420057413 -0.344740331172943
0.386961324246804 0.234177677469540 -0.344740331172943
0.377264783537994 0.229833636484486 -0.344740331172943
0.360395937797976 0.264515483751927 -0.344740331172943
0.361213014714529 0.267496515292958 -0.344740331172943
0.351676691189710 0.242122373793637 -0.344740331172943
0.406861852391510 0.286061278398993 -0.344740331172943
0.457142859445635 0.346101784194494 -0.344740331172943
0.458735510148180 0.328423905347952 -0.344740331172943
0.401587458016392 0.301338485874083 -0.344740331172943
0.468656379609134 0.303307073718847 -0.344740331172943
0.371543242006997 0.309450149470822 -0.344740331172943
0.412698881575389 0.274664716313555 -0.344740331172943
0.387525963356156 0.358780536302376 -0.344740331172943
0.409621894569233 0.362971636259147 -0.344740331172943
0.396763147054399 0.296385064949360 -0.344740331172943
0.442137285076163 0.282041799572419 -0.344740331172943
0.400618663528808 0.350288130426963 -0.344740331172943
0.377782914245979 0.359103514775492 -0.344740331172943
0.382131906210145 0.292094762353366 -0.344740331172943
0.393944120832710 0.365857230531467 -0.344740331172943
0.392305801740919 0.331224724342057 -0.344740331172943
0.385239554138550 0.313836228479132 -0.344740331172943
0.455456341655531 0.325343470425051 -0.344740331172943
0.491131440062312 0.340459228764829 -0.344740331172943
0.405054361223083 0.366429269313812 -0.428153664240446
0.398741415135476 0.366429269313812 -0.462964138853738
0.405040070594142 0.366429269313812 -0.459429419640959
0.532898908083965 0.366429269313812 -0.550322222843612
0.368528802728312 0.366429269313812 -0.436888936971620
0.400560281008865 0.366429269313812 -0.443417598247050
0.339072592294014 0.366429269313812 -0.379731885286467
0.507401638031125 0.366429269313812 -0.553165596431938
0.390964518917445 0.366429269313812 -0.443857964903566
0.392737951304519 0.366429269313812 -0.482999296710048
0.432739582413550 0.366429269313812 -0.452910834570446
0.464054485975976 0.366429269313812 -0.536295779983747
0.434873137458329 0.366429269313812 -0.499136102613536
0.377682244789321 0.366429269313812 -0.517678228861729
0.499134439651312 0.366429269313812 -0.527086946832365
0.348607136831121 0.366429269313812 -0.549300865048968
0.493480688868417 0.366429269313812 -0.528848175888684
0.477898247716439 0.366429269313812 -0.507522422353619
0.391603399198354 0.366429269313812 -0.540741468571601
0.400771150193966 0.366429269313812 -0.530593678264465
0.378563162234766 0.366429269313812 -0.517318298443851
0.451598900951964 0.366429269313812 -0.532824738693317
0.456852090564905 0.366429269313812 -0.492962320841597
0.364910512383601 0.366429269313812 -0.498129016478160
0.435751290733531 0.366429269313812 -0.491249482519700
0.413863047992364 0.366429269313812 -0.499433332983067
0.383171242075766 0.366429269313812 -0.417856347611654
0.379372880004903 0.366429269313812 -0.442653501308074
0.401857883401770 0.366429269313812 -0.367413389783819
0.536118328108140 0.366429269313812 -0.365900093474408
0.532157143995667 0.366429269313812 -0.367607083829753
0.354084135086228 0.366429269313812 -0.346403731193361
0.506191748848077 0.366429269313812 -0.472814596204079
0.404408424542950 0.366429269313812 -0.409706901291828
0.543392009082801 0.366429269313812 -0.364778954541240
0.531139597604640 0.366429269313812 -0.405609347039061
0.493228491404766 0.366429269313812 -0.461192527040658
0.481188267372659 0.366429269313812 -0.472508728259724
0.378312878191554 0.366429269313812 -0.349844914121931
0.469012029148667 0.366429269313812 -0.370632519167114
0.448456558161966 0.366429269313812 -0.440696812030766
0.512680189881342 0.366429269313812 -0.520040686147496
0.476001232395836 0.366429269313812 -0.356640681784607
0.408338316222228 0.366429269313812 -0.353213220598734
0.457890710317449 0.366429269313812 -0.434188663008105
0.484570645427565 0.366429269313812 -0.376800231143027
0.497847548110830 0.366429269313812 -0.388547339494237
0.541763053800815 0.366429269313812 -0.402563554868060
0.378890115084350 0.366429269313812 -0.374428094059258
0.506379159441172 0.366429269313812 -0.510737831426604
0.509445006317386 0.366429269313812 -0.477123314216570
0.494249356163406 0.366429269313812 -0.382364332231999
0.404028018846907 0.366429269313812 -0.391244129039011
0.513676720090112 0.366429269313812 -0.380412368288179
0.482984683441085 0.366429269313812 -0.471752579461878
0.501404865307999 0.366429269313812 -0.352042314548630
0.374244749064312 0.236529528502533 -0.557490050792694
0.338989001734570 0.324674616538930 -0.557490050792694
0.369264110330877 0.277414359142752 -0.557490050792694
0.364205175554790 0.299050589862612 -0.557490050792694
0.363683223964569 0.245601550551918 -0.557490050792694
0.344230022765796 0.225235051027339 -0.557490050792694
0.483115139013127 0.326799387000171 -0.557490050792694
0.409051669812908 0.280754422569419 -0.557490050792694
0.412717444831647 0.245135223684579 -0.557490050792694
0.419178881859476 0.330476870186682 -0.557490050792694
0.443678948801860 0.297326538795007 -0.557490050792694
0.464247920751602 0.325620995974352 -0.557490050792694
0.486485999037592 0.316432732646611 -0.557490050792694
0.413366383202122 0.288267111520618 -0.557490050792694
0.413534915849204 0.323337555681351 -0.557490050792694
0.451229055659861 0.278451377732352 -0.557490050792694
0.454423631587686 0.359711488159873 -0.557490050792694
0.379501154576304 0.353449917542790 -0.557490050792694
0.457862176343770 0.359779129244742 -0.557490050792694
0.401680376705491 0.362548850611049 -0.557490050792694
0.462672045510957 0.324831843759490 -0.557490050792694
0.448509712630722 0.318967345769376 -0.557490050792694
0.431003879629602 0.263294947949340 -0.557490050792694
0.454852140520903 0.360459921265153 -0.557490050792694
0.458874846122109 0.295126816777123 -0.557490050792694
0.338088065385818 0.260618919228120 -0.486785308500991
0.338088065385818 0.322311126742711 -0.539801303598315
0.338088065385818 0.235331064900255 -0.493918598061589
0.338088065385818 0.270933715950996 -0.504364338133099
0.338088065385818 0.280123583216986 -0.476986346519923
0.338088065385818 0.288449926667535 -0.478703459360184
0.338088065385818 0.280312358667994 -0.510542888028124
0.338088065385818 0.254672697494532 -0.490775875197974
0.338088065385818 0.234854116137254 -0.397695727347282
0.338088065385818 0.223171941544328 -0.478611469709259
0.338088065385818 0.224793972541117 -0.472626624491059
0.338088065385818 0.223270800731564 -0.389940373208243
0.338088065385818 0.336533878572579 -0.516585136379182
0.338088065385818 0.235328166694966 -0.427371713042350
0.338088065385818 0.248629624560680 -0.474091179036195
0.338088065385818 0.238703548746144 -0.522684480541199
0.338088065385818 0.228279128195225 -0.524843551625107
0.338088065385818 0.304519000710071 -0.468913630160666
0.338088065385818 0.274330418456333 -0.469802674780914
0.338088065385818 0.225462066275146 -0.425031134385878
0.338088065385818 0.331102474451172 -0.393159669107308
0.338088065385818 0.359648174925654 -0.442574853042439
0.338088065385818 0.328446154601996 -0.475308419398905
0.338088065385818 0.266820800369685 -0.394405967372604
0.338088065385818 0.248906092834434 -0.346065094336349
0.338088065385818 0.281453484309477 -0.345516676743043
0.338088065385818 0.313500194249273 -0.416633817238651
0.338088065385818 0.312765690142910 -0.468084369533520
0.338088065385818 0.279783381976440 -0.359724620945976
0.338088065385818 0.334513312398154 -0.506719507201389
0.338088065385818 0.231220702585081 -0.351762091082732
0.338088065385818 0.290773500810782 -0.412935080079515
0.338088065385818 0.328916100050337 -0.364111787769690
0.338088065385818 0.308747638676649 -0.360488682636756
0.338088065385818 0.281014072463757 -0.426828063137914
0.338088065385818 0.252694355824644 -0.372518844390955
0.338088065385818 0.327752675359246 -0.369760890809242
0.338088065385818 0.327934621504331 -0.381684665864024
0.338088065385818 0.297887530443853 -0.434693222258269
0.338088065385818 0.272413792589767 -0.420404811285718
0.668265759944916 0.265494721678969 -0.028318597191512
0.668265759944916 0.273977798921736 -0.018413246303680
0.623806413678003 0.265040725469589 -0.021343414218809
0.654276162354201 0.265040725469589 -0.024048179331426
0.630099608078732 0.292900251848339 -0.014895088039339
0.656215121485090 0.275416813448548 -0.014895088039339
0.637054267374372 0.305014401674271 -0.039363511591990
0.646499546428164 0.305014401674271 -0.025454043808275
0.640793205108355 0.279480567584918 -0.042984738945961
0.635999636958654 0.292006774408138 -0.042984738945961
0.619981527328491 0.269294813732075 -0.018765947100653
0.619981527328491 0.299203675786320 -0.035336159348649
0.671423852443695 0.248298202252857 -0.032123450168604
0.671423852443695 0.261553294670967 -0.021066309959612
0.635819603675376 0.224069759249687 -0.039031925461405
0.641608649892903 0.224069759249687 -0.021401257660783
0.641795418132054 0.232622269517185 -0.014978215098381
0.661415430807565 0.242439522009101 -0.014978215098381
0.630529939994385 0.265206962823868 -0.026995537241006
0.655736937427863 0.265206962823868 -0.017111822188745
0.656384368498423 0.231835078268509 -0.043400228023529
0.657987109665702 0.237427978060764 -0.043400228023529
0.620396971702576 0.236533537597360 -0.037415875759451
0.620396971702576 0.239616040505582 -0.016436393425250
0.674831092357635 0.193467459061977 -0.025241420318800
0.674831092357635 0.208581247037867 -0.016306715651448
0.621121265384903 0.184677839279175 -0.019352800462544
0.664663015427442 0.184677839279175 -0.024908875976551
0.625413499224048 0.188574517828121 -0.014978215098381
0.673767091598807 0.223145234118009 -0.014978215098381
0.645994446914389 0.224069759249687 -0.035215074714359
0.666369852541618 0.224069759249687 -0.024406648244014
0.649810563482681 0.185780407140734 -0.043400228023529
0.661715910788051 0.219987907056358 -0.043400228023529
0.620396971702576 0.202664474071692 -0.037331211377880
0.620396971702576 0.213394651027519 -0.016092019467147
0.674831092357635 0.234555897105288 0.003291275308425
0.674831092357635 0.250431895735179 -0.003303085296427
0.674831092357635 0.245356498011929 0.021631713419410
0.674831092357635 0.260352954198225 0.004587651743184
0.628636012128502 0.216922715306282 0.020928940037666
0.642720039296428 0.216922715306282 -0.003603573349163
0.656960096333018 0.216922715306282 0.012263399129759
0.628015072912645 0.216922715306282 0.037495741208435
0.639372962200207 0.227496364810091 0.038707844913006
0.635873138461006 0.227045853768488 0.038707844913006
0.626380817118187 0.262502042089796 0.038707844913006
0.651158727471296 0.243411059032299 0.038707844913006
0.625036492055737 0.264209657907486 0.001418017619910
0.648425217868520 0.264209657907486 0.008248012988359
0.671782426318492 0.264209657907486 -0.006590935467076
0.673830057829905 0.264209657907486 -0.005248399118213
0.657951911119962 0.224655484412899 -0.014562680386007
0.664159378576354 0.222927878404967 -0.014562680386007
0.671695940854285 0.257639617891949 -0.014562680386007
0.657372745972921 0.239564331329965 -0.014562680386007
0.620396971702576 0.230486249738566 -0.001564766020863
0.620396971702576 0.237204912624281 -0.004421995609057
0.620396971702576 0.244061047471598 0.037700461958016
0.620396971702576 0.249325349504528 0.035781338710281
0.685053110122681 0.192813563984930 -0.010949200623339
0.685053110122681 0.203282724893752 0.010884705854213
0.632385084981077 0.177530795335770 0.030522745071781
0.622027235788274 0.177530795335770 0.033806808591081
0.651391770954600 0.177530795335770 0.025836287254350
0.668168945884678 0.177530795335770 0.010068241052738
0.631640162448406 0.205903595529277 0.041367225348949
0.647073752341650 0.186729571427632 0.041367225348949
0.656959539617145 0.199569732305775 0.041367225348949
0.659766632927712 0.195018026102951 0.041367225348949
0.638340064330147 0.216922715306282 0.023494790663103
0.620881137447393 0.216922715306282 0.031393772716190
0.677833095622399 0.216922715306282 0.038383690744999
0.651831347349943 0.216922715306282 0.020802622559190
0.649552777270825 0.178500314090430 -0.014562680386007
0.671761143449481 0.182299554331662 -0.014562680386007
0.639920750903271 0.216368971832018 -0.014562680386007
0.665529876155584 0.209139589927937 -0.014562680386007
0.620396971702576 0.199374966043103 0.010305652501928
0.620396971702576 0.202621682844623 0.006324087386531
0.685053110122681 0.155103148593035 -0.033821508989075
0.685053110122681 0.162569136035634 -0.025545402070939
0.661693977053387 0.145368948578835 -0.033664331944767
0.676855773089546 0.145368948578835 -0.033304626797175
0.653304205644321 0.146965299610280 -0.014562680386007
0.646870166490351 0.155463976675471 -0.014562680386007
0.680727888069314 0.165623351179691 -0.014562680386007
0.654140729692037 0.166668385753976 -0.014562680386007
0.623587134453624 0.184677839279175 -0.042614068314545
0.679319316561180 0.184677839279175 -0.039701926455155
0.631123019636646 0.171496853102460 -0.043400228023529
0.654507879439059 0.155755723502184 -0.043400228023529
0.683188071854072 0.176432541702977 -0.043400228023529
0.682353902838016 0.176640123000218 -0.043400228023529
0.620396971702576 0.155933991892910 -0.027747494920222
0.620396971702576 0.158325500109688 -0.018136388000844
0.685053110122681 0.125840543299327 -0.037798195232455
0.685053110122681 0.137102959527589 -0.023836461524814
0.621681306701477 0.084618955850601 -0.030084517858882
0.674220396477494 0.084618955850601 -0.030530066894068
0.624388251218264 0.086585736969895 -0.014562680386007
0.634828861699173 0.096084060694821 -0.014562680386007
0.661664003357657 0.143740897291499 -0.014562680386007
0.667206921501279 0.106599347217026 -0.014562680386007
0.623537279209523 0.145368948578835 -0.032252454271875
0.660683461175544 0.145368948578835 -0.025534524133890
0.653845653183875 0.112240755840675 -0.039743617177010
0.641053193003427 0.124525372167469 -0.039743617177010
0.632990157170042 0.140898126507514 -0.039743617177010
0.644822664334242 0.124884929263976 -0.039743617177010
0.620396971702576 0.105794820388853 -0.025451411953349
0.620396971702576 0.124126501486185 -0.030227462337686
0.678238332271576 0.140399261817209 0.022344310520042
0.678238332271576 0.135806611132551 0.023253595940685
0.678238332271576 0.149718082666964 0.019261867212467
0.678238332271576 0.171974870926715 0.028395096202108
0.639560396291792 0.116780720651150 0.006728913034622
0.642464957143887 0.116780720651150 0.022567299572042
0.670470440496554 0.116780720651150 0.041743778248608
0.654723781938466 0.116780720651150 0.033869303247920
0.624093646025311 0.121292790332030 0.046769063919783
0.632803354289107 0.145072182802298 0.046769063919783
0.658597146486286 0.172314086592967 0.046769063919783
0.673906088741943 0.130616058043732 0.046769063919783
0.653941584507154 0.177530795335770 0.006363519870624
0.644669375796529 0.177530795335770 0.006145288643412
0.677090958361845 0.177530795335770 0.029182458009293
0.665258606351570 0.177530795335770 0.016866835321805
0.667782187788937 0.124208655797444 -0.014562680386007
0.624564912064851 0.143179166194611 -0.014562680386007
0.668756674146751 0.173648807712781 -0.014562680386007
0.661089395002777 0.139765555167489 -0.014562680386007
0.620396971702576 0.122917217402679 -0.010422058702576
0.620396971702576 0.126273405258098 0.023277865922250
0.620396971702576 0.165193842872013 0.013328035977997
0.620396971702576 0.161675662005089 0.006923245205519
0.681645631790161 0.102249263422863 0.002523318995606
0.681645631790161 0.100497936324048 0.045579714286070
0.623942800858197 0.091766081750393 0.029360512190459
0.626913191025803 0.091766081750393 0.017274940008546
0.642126601009124 0.091766081750393 -0.004881767693475
0.678165646592321 0.091766081750393 0.037721970304574
0.674028315325061 0.091766081750393 0.014929195558989
0.639712626873155 0.091766081750393 0.033233549065461
0.644420425880896 0.105379866977445 0.050425719469786
0.672226547980415 0.104324247642337 0.050425719469786
0.661123318836649 0.116780720651150 -0.013467644859804
0.621292267113659 0.116780720651150 0.004452939509806
0.651486681630547 0.116780720651150 0.011688025802282
0.664486320484418 0.116780720651150 0.004443292889683
0.652095136331983 0.116780720651150 0.020151681968616
0.676928830303080 0.116780720651150 0.012283936839043
0.641307282504631 0.101197109567164 -0.014562680386007
0.681226157337251 0.116350008872871 -0.014562680386007
0.620396971702576 0.104860156770532 0.007549140562708
0.620396971702576 0.110227092823954 0.024777910643705
0.681645631790161 0.070723400930660 -0.000590446493010
0.681645631790161 0.074979727027747 0.048440955974615
0.656017731861101 0.063177801668644 0.003271175002443
0.636070753017435 0.063177801668644 0.000002788382413
0.626520464867574 0.063177801668644 0.020257093801814
0.665540339591929 0.063177801668644 0.042402340314973
0.626924035957764 0.063177801668644 0.052955751140438
0.668466565039515 0.063177801668644 0.018875554499384
0.635871826719514 0.075384595933705 0.053999219089746
0.675846911485874 0.081294805113334 0.053999219089746
0.622472475353481 0.091766081750393 0.022288637062249
0.627385527389635 0.091766081750393 -0.008614569312636
0.648035045694271 0.091766081750393 0.015946218794246
0.668348173004177 0.091766081750393 0.027387035755471
0.649129693360043 0.091766081750393 0.030359948215479
0.652087950452426 0.091766081750393 0.027189476396213
0.629816955788712 0.081792802621784 -0.014562680386007
0.644999918693021 0.085364718593662 -0.014562680386007
0.620396971702576 0.080102588024620 -0.002078604919896
0.620396971702576 0.083813608740387 0.029831233555501
0.649287691867093 0.066751323640347 -0.031032616459741
0.666911082273473 0.066751323640347 -0.021427337501310
0.630517157680068 0.074093173883745 -0.014562680386007
0.638679118813865 0.084395941138538 -0.014562680386007
0.659647616096214 0.084618955850601 -0.041991731207497
0.659396136313210 0.084618955850601 -0.020023190278313
0.639365085834411 0.071018508326860 -0.043400228023529
0.679924844514585 0.077379116742613 -0.043400228023529
0.688460350036621 0.050670892696541 -0.040486005263190
0.688460350036621 0.060949700388213 -0.039160952853749
0.636807349350970 0.013148343190551 -0.041072591574266
0.679003630981752 0.013148343190551 -0.036057855068557
0.626436609852745 0.027628827224824 -0.014562680386007
0.663309410837724 0.020007035409673 -0.014562680386007
0.665140713156931 0.040163854095373 -0.014562680386007
0.658857825194281 0.039740109897407 -0.014562680386007
0.657734427507489 0.066751323640347 -0.036674335315976
0.641417656376462 0.066751323640347 -0.021669114578335
0.624444267472944 0.020131496977775 -0.046973757445812
0.622244362913509 0.062327303388307 -0.046973757445812
0.679958464670324 0.049250121010476 -0.046973757445812
0.658233039064319 0.050728332311989 -0.046973757445812
0.620396971702576 0.049331112052804 -0.042511788246612
0.620396971702576 0.055526342884010 -0.020993148065113
0.691867649555206 -0.015254618346586 -0.039906261310113
0.691867649555206 0.001777882567217 -0.025697968186430
0.629004231980880 -0.022586936131120 -0.035335132090566
0.667024251300302 -0.022586936131120 -0.015127820091859
0.651429416867500 -0.013566043321689 -0.014562680386007
0.630845813418227 -0.004684433094036 -0.014562680386007
0.657857277169251 0.000779975180065 -0.014562680386007
0.661260573883500 0.012161285859642 -0.014562680386007
0.625728572333274 0.013148343190551 -0.031687757089432
0.676701780468625 0.013148343190551 -0.028004979662879
0.631293233185145 -0.010745845643710 -0.046973757445812
0.634305287726011 -0.020568043784233 -0.046973757445812
0.678617770554557 -0.001693005642977 -0.046973757445812
0.687893443309325 -0.017153333394376 -0.046973757445812
0.620396971702576 -0.003838395492169 -0.035796933240390
0.620396971702576 -0.003138049535360 -0.014945474303498
0.685053110122681 0.033161426038622 0.004388322142601
0.685053110122681 0.047403040015634 -0.005102905475155
0.685053110122681 0.053930155341873 0.048850722227772
0.685053110122681 0.038272253666790 0.040307276934693
0.640996091255021 0.020295407623053 0.006829695652189
0.631490762027879 0.020295407623053 -0.006259288390057
0.636307939132074 0.020295407623053 0.032252241852528
0.663475535068728 0.020295407623053 0.041445727252903
0.658918433545845 0.020295407623053 0.019524916179972
0.681730130956974 0.020295407623053 -0.002079159368562
0.664113732113604 0.025509710946697 0.050425719469786
0.638747737754300 0.022862056469170 0.050425719469786
0.677754805150729 0.026344858923654 0.050425719469786
0.646411680735841 0.060838848005822 0.050425719469786
0.638476205721467 0.063177801668644 0.002274435547100
0.644521759378928 0.063177801668644 0.000273159467227
0.638937003453042 0.063177801668644 0.000523982432566
0.647716583150415 0.063177801668644 0.040235213509473
0.683213781519462 0.063177801668644 0.014668931438905
0.661458479324644 0.063177801668644 0.042291852543875
0.665462855716658 0.025892793717396 -0.014562680386007
0.648950102297242 0.040732396286648 -0.014562680386007
0.673826451344972 0.034850952423142 -0.014562680386007
0.662154922230700 0.038571202308504 -0.014562680386007
0.620396971702576 0.028649912687559 0.018886456925580
0.620396971702576 0.036974427291168 -0.001472443336316
0.620396971702576 0.046228888818989 0.039232108202185
0.620396971702576 0.054734975026105 0.021975909642041
0.688460350036621 0.009036339847789 -0.000056226292694
0.688460350036621 0.001642527222179 -0.004198720831819
0.688460350036621 0.003222544970312 0.016449343227185
0.688460350036621 -0.011263904323128 0.047174152858566
0.640856002859006 -0.022586936131120 -0.013625824292067
0.637305820256495 -0.022586936131120 0.001167258028866
0.631484480953552 -0.022586936131120 0.015586770660116
0.660460057981761 -0.022586936131120 0.021558891035092
0.685941946969744 -0.022586936131120 0.047713271077993
0.642490169014863 -0.022586936131120 0.046181367270285
0.632302423541098 0.006955136688171 0.053999219089746
0.622838359263466 -0.001931169915841 0.053999219089746
0.654490991865937 0.010184311165153 0.053999219089746
0.651649895330033 0.003458988818018 0.053999219089746
0.627333492520807 0.020295407623053 0.035363570972559
0.647460964864039 0.020295407623053 0.024844499723889
0.624626005627737 0.020295407623053 -0.012520174101941
0.662937700776890 0.020295407623053 0.011793707624972
0.676332975580857 0.020295407623053 0.044056988883129
0.659533140787306 0.020295407623053 0.015778716723116
0.628174236192889 -0.005351543156662 -0.014562680386007
0.644426790728661 -0.020663330700245 -0.014562680386007
0.657702852677652 0.000281441501845 -0.014562680386007
0.626635581566396 0.020081698459343 -0.014562680386007
0.620396971702576 -0.013439329811532 -0.006065017277930
0.620396971702576 -0.020908938036890 -0.013161621284065
0.620396971702576 -0.000441940826584 0.045666908869656
0.620396971702576 -0.014938634555462 0.046107516943701
0.695274949073792 -0.026213742713637 -0.026674545463538
0.695274949073792 -0.026126052284274 0.007881363684127
0.627430007954767 -0.036881063133478 0.022192996988503
0.629916017570030 -0.036881063133478 0.029072003412665
0.646684287100564 -0.036881063133478 0.017461632960166
0.643478871274490 -0.036881063133478 0.020546277994439
0.622584491250815 -0.036881063133478 0.000388484582438
0.690224935813711 -0.036881063133478 0.030404446422393
0.672071733482021 -0.036881063133478 -0.003378631729165
0.648123043533229 -0.036881063133478 0.037641649363074
0.625747106156030 -0.036881063133478 0.053016920670875
0.661436475797119 -0.036881063133478 0.051261078688619
0.637767174602613 -0.027251855198498 0.057655904442072
0.690382074552790 -0.024659853334481 0.057655904442072
0.645085170423016 -0.022586936131120 -0.019956587650699
0.625069970436710 -0.022586936131120 -0.037140165139122
0.672205587063436 -0.022586936131120 -0.025928223190225
0.641659703600091 -0.022586936131120 -0.037225671978124
0.659659280960296 -0.022586936131120 -0.013547725945002
0.684771160072242 -0.022586936131120 0.056405742600624
0.692361034855826 -0.022586936131120 0.008246289839277
0.666520006846834 -0.022586936131120 0.043101020079906
0.646762964598455 -0.022586936131120 0.039261349670378
0.693065583118092 -0.022586936131120 0.052352884530605
0.623021367226592 -0.024226217802751 -0.050630416721106
0.657445163764204 -0.028080228216988 -0.050630416721106
0.620396971702576 -0.030289057495514 0.002355109386054
0.620396971702576 -0.033896902366537 0.047020214036919
0.639218437018228 0.157925205469673 0.341198756086390
0.643589056488104 0.149255627402229 0.304515731073327
0.640146700043741 0.074419607597719 0.209671248963754
0.641433064449756 -0.058887497552145 0.213931008599357
0.641929565265140 -0.019561121091139 0.215575157117871
0.643012677511477 -0.032272314521205 0.219161852929881
0.643992917736130 -0.070623623851256 0.222407890928638
0.641977814643322 0.077466307030195 0.215734933579861
0.644082069396973 -0.001956686733451 0.251298236378278
0.644082069396973 0.042446217323533 0.252512939020814
0.644082069396973 -0.061919134413114 0.324024432414475
0.644082069396973 -0.008261624337696 0.263283253574072
0.644082069396973 -0.053518544058408 0.285549047997754
0.644082069396973 -0.005361520321309 0.276090252677229
0.644082069396973 -0.062108505624645 0.275356638691077
0.644082069396973 -0.037520907095483 0.249301937804304
0.644082069396973 -0.030582987000042 0.307442573640918
0.644082069396973 0.050531237326139 0.245498188026758
0.644082069396973 -0.074661397317644 0.336016424129746
0.644082069396973 -0.008671938574193 0.278177475630394
0.644082069396973 0.087195817779619 0.229966480697808
0.644082069396973 -0.071585997313955 0.239434225294778
0.644082069396973 0.035662551808452 0.270730146609565
0.644082069396973 -0.056218194211080 0.244488885864758
0.644082069396973 0.056706221929274 0.255879949313708
0.644082069396973 0.046344164615975 0.251936803777606
0.644082069396973 -0.044647571170612 0.288063017370892
0.644082069396973 0.032322171992221 0.292596691985200
0.644082069396973 -0.007211647644329 0.313276442793822
0.644082069396973 0.019806466791525 0.315884849924137
0.644082069396973 0.003641025848618 0.306769776460960
0.644082069396973 0.093435494340386 0.305890380322406
0.644082069396973 0.045226481268291 0.337796076520283
0.644082069396973 0.000291829807472 0.336263492697713
0.644082069396973 0.116299040925931 0.263680876642240
0.644082069396973 0.124268562003596 0.337215692595035
0.644082069396973 0.079657072651924 0.273283589816614
0.644082069396973 0.001722744066836 0.328720726240099
0.644082069396973 0.103583129349011 0.282200130272545
0.644082069396973 0.040094117027102 0.305836158854379
0.644082069396973 0.108926579341882 0.336454328819771
0.644082069396973 0.060935691475850 0.311913724280888
0.644082069396973 0.095232704285825 0.343944531956770
0.644082069396973 0.136493393338597 0.291926580783917
0.644082069396973 0.136464096170402 0.233522221945071
0.644082069396973 0.114262313019290 0.299082581025335
0.639504005960939 -0.021888711965778 0.362188839773176
0.641682777322004 -0.036324889006079 0.354973937972389
0.643370086001463 -0.064373826594657 0.349386492383809
0.642205210330459 0.014794009210445 0.353243924938047
0.640204638111720 0.151632702598462 0.359868728422030
0.642140778382120 0.045950536893732 0.353457288390682
0.639012634754181 0.063766521703866 0.229643645633336
0.639012634754181 0.012914515096380 0.236374602378423
0.639012634754181 0.043694281984548 0.261044636924373
0.639012634754181 -0.022326997090794 0.217218178313748
0.639012634754181 -0.096143938143869 0.277942434612584
0.639012634754181 0.096179255579148 0.233076813065753
0.639012634754181 0.093189981345740 0.220168106417833
0.639012634754181 0.050808846290044 0.236549439735053
0.639012634754181 0.018136188794633 0.212743606475016
0.639012634754181 0.047944993768472 0.208201155057457
0.639012634754181 -0.069692155755038 0.305725112753339
0.639012634754181 0.054829630960930 0.223388859273674
0.639012634754181 -0.049259267364349 0.252610797200589
0.639012634754181 0.124217978924260 0.210720925174225
0.639012634754181 -0.003703093133357 0.241081665768096
0.639012634754181 -0.082103885055639 0.248895589332509
0.639012634754181 -0.040695932185844 0.327688325924695
0.639012634754181 -0.092247188100464 0.266424536380534
0.639012634754181 -0.059402319679625 0.264127666319233
0.639012634754181 0.031360201952163 0.235855857708778
0.639012634754181 0.028969161342783 0.263959159194532
0.639012634754181 -0.021746674326084 0.258526261423363
0.639012634754181 -0.032714398766375 0.321708829762695
0.639012634754181 -0.084344447606266 0.229398606107136
0.639012634754181 -0.016369561786451 0.253097618454737
0.639012634754181 -0.048781392164347 0.283005082931868
0.639012634754181 0.132504503617211 0.322639380996432
0.639012634754181 0.017513047369636 0.311308359001438
0.639012634754181 0.146068970354145 0.267127473942974
0.639012634754181 0.054560755654269 0.318298697066668
0.639012634754181 -0.075434763767447 0.352176288146597
0.639012634754181 -0.004452109010642 0.353759864665179
0.639012634754181 0.117961356914283 0.300341763237992
0.639012634754181 0.083722662794604 0.267533464491073
0.639012634754181 0.144428906163041 0.217125371919926
0.639012634754181 0.032503326696998 0.351320107944988
0.639012634754181 -0.022176180661977 0.327234900075932
0.639012634754181 0.095068565708499 0.346695387128649
0.639012634754181 0.114631941911837 0.274691849130325
0.639012634754181 0.054506649681563 0.354862947177349
0.639012634754181 0.111904360603766 0.349206780827543
0.639012634754181 -0.046845318554978 0.356052259791888
0.639012634754181 0.143635102026744 0.338266323836280
0.639012634754181 0.128236466342105 0.352069409548220
0.639012634754181 0.029984846201466 0.315874319684781
0.639012634754181 0.106907891942590 0.358432337105070
0.639012634754181 0.013369932251687 0.314456941679491
0.639012634754181 0.115681784017952 0.355336388307346
0.639012634754181 -0.065270215595845 0.358595243917890
0.639012634754181 0.024165530729891 0.327380266980319
0.639012634754181 0.135700976157138 0.296301497765716
0.639012634754181 0.043624011586341 0.363027596541186
0.643434988734263 -0.088786398232359 0.235912801253830
0.643706148534533 -0.088244077834769 0.271181057945412
0.502990685489696 0.326372474431992 0.357360954409878
0.519665530562316 0.326372474431992 0.373199268198337
0.528393070064031 0.326372474431992 0.347072231605709
0.496151063733692 0.326372474431992 0.390096296140461
0.525727440616512 0.326372474431992 0.351758095280425
0.540574678426937 0.326372474431992 0.414650548762604
0.539614628642425 0.326372474431992 0.375839238283622
0.545678871289729 0.326372474431992 0.351850185664692
0.505439734632604 0.321053773164749 0.386090957653090
0.517069812648823 0.321053773164749 0.379974497313387
0.508510057663153 0.321053773164749 0.389097604889103
0.530712092766610 0.321053773164749 0.420623881026791
0.536060388028582 0.321053773164749 0.401780169826567
0.506716590720078 0.321053773164749 0.407183130188725
0.428943039535386 0.323713093996048 0.330484542499397
0.415653575409901 0.323713093996048 0.345754341388041
0.444358527101782 0.323713093996048 0.322598826087604
0.457417947284993 0.323713093996048 0.367064012166025
0.414545135489530 0.323713093996048 0.393071785518327
0.434338159126820 0.323713093996048 0.401238172914333
0.406961399391361 0.321053773164749 0.390297079961666
0.414560521560143 0.321053773164749 0.326914768934872
0.440855818794885 0.321053773164749 0.341413740305573
0.462523438818392 0.321053773164749 0.323207050837827
0.414435768137817 0.321053773164749 0.396716385861723
0.448636514481679 0.321053773164749 0.377916901187094
0.530077200558608 0.249972256963670 0.301487028598785
0.522702797212361 0.259122315301297 0.301487028598785
0.524025882449716 0.264774682109497 0.301487028598785
0.548133839128682 0.270800631733968 0.301487028598785
0.553587610206158 0.286355406201207 0.301487028598785
